x,y,z,nx,ny,nz
-0.12773746585383822,-0.06317534213048187,-0.21478146124373432,-0.59251070400928,0.399039811437638,0.6997844629042871
-0.12746179692467255,-0.05676557996556127,-0.21840715558593773,-0.6014110579326732,0.4605545579961058,0.6528355371035758
-0.1296979550997563,-0.058730978402137375,-0.21452337970358037,-0.578036529832356,0.3787129701551225,0.7228072055642867
-0.13402738509916864,-0.06292451766876893,-0.21696524830486644,-0.6659873879607948,0.3001286232166228,0.6829228423498895
-0.13127833890469548,-0.05399415531437325,-0.22006635982914857,-0.6882195109802581,0.5988569567965267,0.4095415119404838
0.12476336973894997,-0.08437981327810008,-0.21954217817693678,0.8473060981085978,0.24668083538275767,0.4703413032711972
0.11988256759017821,-0.07864003607487761,-0.21345964288566027,0.8734288317111996,0.4472705413979827,0.19253866815049037
0.12214626216957075,-0.0832566712965742,-0.21262920648952272,0.8386444811395081,0.5375526039162806,0.08782159345554957
-0.14212059868561283,-0.09778252136892233,-0.22474813447804204,-0.9252968369476957,-0.10914160492046715,0.36319949560809467
0.11987331499242392,-0.16753276114835103,-0.20990750635840533,0.7369170536679317,-0.5978083843573265,-0.31556044049509485
0.11130590927326928,-0.178183934607273,-0.20929958062502996,0.6618406369334869,-0.7366896618080259,-0.13876351641787185
0.10638996385724417,-0.18225149568344312,-0.21276434717159695,0.5817323118447248,-0.8048143832157404,-0.11773413236975963
-0.04748714257168918,-0.21230040003877715,-0.21179722651910482,-0.20864817895912155,-0.9716084588193119,0.11154792767148958
-0.042520335908326594,-0.21414800745769327,-0.219278583893253,-0.08388765160221852,-0.9907190975284276,0.1069510715286344
-0.035438125714518265,-0.21402084685942382,-0.21374736132781036,-0.10655471364352438,-0.9942238119354312,0.0128493105234071
-0.023559868971090456,-0.21538805547969742,-0.2222294025389189,0.08591151405159739,-0.9950829196801977,0.049286861475403385
-0.026231500329477436,-0.21535437772826585,-0.2176736404523461,-0.030328418434889638,-0.9983760961847006,0.048221961824834576
-0.014060012609017365,-0.21531642544169044,-0.22472230690382838,-0.024341404909113934,-0.9977996346945028,-0.06167158997923964
-0.06410609593636339,-0.03441670106231284,-0.21743874122443546,-0.05220075903704956,0.9227053041152228,0.3819554980800645
0.04985588202289004,-0.03790825139896134,-0.21361347925313967,0.07060169399025679,0.9902831214961796,0.11981126860812712
0.040164216173706,-0.03639260433799097,-0.21599568633941493,-0.0055760257899848745,0.9815207140031588,0.19127466094367793
0.041151122606519354,-0.038232014508558246,-0.20809931197127035,0.06917520867676759,0.9959635165075215,0.05719671573174229
-0.08054239571062048,-0.039101548430766325,-0.21352240040254739,-0.22917810219423884,0.7841048009368281,0.5767643007524514
0.018261448477301462,-0.039019658236499936,-0.21042697902582264,-0.23506252313818252,0.9687165291669875,0.0795857797258799
0.017976499306288914,-0.04032657198304641,-0.2199360069463977,-0.2272434100425045,0.9736856212969688,0.017226243693568805
-0.10883110478400072,-0.04473049300034023,-0.2135738085589801,-0.26685247161283504,0.7604374949919639,0.5920511587730134
0.11758740311405502,-0.07144786868486738,-0.20920477212684702,0.850632855963308,0.5257079061596616,-0.007412270700037221
-0.13538009253403266,-0.08495848679050953,-0.21141491522270123,-0.6646123182164089,0.26428271184964547,0.6988884851622674
-0.1382066459509638,-0.07514815459080489,-0.2162443946442297,-0.6556974115347544,0.27790775537053486,0.7020172248681181
-0.13523468174074937,-0.07940431426899763,-0.21210673619478568,-0.6549807463885411,0.2071239102796755,0.7267048284212557
-0.138450005554339,-0.08473292771443451,-0.2151197519867703,-0.7298593220027731,0.13265143114580524,0.6706034356463006
-0.14228955190887366,-0.07693720331051414,-0.22101062684795741,-0.80458842339767,0.18080503232156725,0.5656385853366519
0.12281904745307691,-0.08081026376583321,-0.20781403191704173,0.8623659960017434,0.5062684313387692,-0.004142990430017562
0.12643333916650268,-0.08435461932618483,-0.2146485163804237,0.874684378258897,0.4513423042617364,0.17668435927821435
-0.14118715087471695,-0.08874713812999159,-0.21914139263992077,-0.8544536723085796,-0.0313739597930149,0.5185794023341931
-0.14374182714269104,-0.08412169501066583,-0.22202811199883005,-0.8482450348522551,-0.07989398447880836,0.5235430374788651
0.131802957099342,-0.10215526729356125,-0.21964891330517838,0.9694041416228519,0.1516893225166441,0.19299212325611356
-0.13599994981421445,-0.10146723039883189,-0.21162993003997155,-0.9304000846077725,-0.07752166934134504,0.358254202130807
-0.135116872859255,-0.09757661894787487,-0.20805558879985675,-0.9338873452678949,0.008080134306287899,0.35747606602131593
0.1327570774461083,-0.11618735060500318,-0.20578426080667,0.9839555586367531,0.03033770749886646,-0.17581547750851795
0.11674958748754698,-0.16601296126831327,-0.2140959233289247,0.7763858533462751,-0.5771455367864815,-0.2532351399218137
0.1138847887508783,-0.16867104634043878,-0.21822443727290552,0.6729549954065236,-0.7389293544912728,0.033391364580032654
-0.09477338683370638,-0.19257433761336995,-0.2040663662444018,-0.6860406356091745,-0.7125376621772281,0.14709971540410946
-0.0993869098351446,-0.18979608352476773,-0.2032507895599507,-0.47401229014923096,-0.8644085888151154,0.16766078960252523
0.07965798675523433,-0.19709125325549906,-0.21573971243783865,0.5711477994684437,-0.7903369300851669,-0.2217154214435888
0.06978111682671902,-0.202360640916115,-0.21975369249060905,0.39483566288976923,-0.9177511851963697,0.04286678645589491
0.07444312463824333,-0.1999376803940918,-0.21744375237235725,0.5221640898744192,-0.8527644898425853,-0.011721267386022511
0.04697432015555727,-0.21093122001533554,-0.21523127295911257,0.29737119331956813,-0.9547060513543755,-0.010330967574841463
0.04850543143163229,-0.21071545052704932,-0.21933081824755335,0.17712125282860014,-0.9712598940606256,0.15900402506153474
-0.04982480814237661,-0.03553368898786859,-0.21079862064004684,0.06426328964555465,0.9380809828862121,0.3404031420994376
-0.05163415196565918,-0.03317495656958376,-0.21519216142594574,0.1450831531166734,0.940620414067648,0.30689430643289844
-0.036890267878117666,-0.03321390163057489,-0.21868834863318157,0.11790349061326517,0.8838961017315732,0.45257756047437464
-0.06667295430789588,-0.03477584418385237,-0.2134010224075047,-0.07076446589893112,0.8883314431046891,0.4537175746624538
-0.02073350908195743,-0.03653638678118734,-0.2090743517966105,0.23106096139247592,0.9725896259463639,0.02608163380420509
-0.02137041715193242,-0.036023806275657,-0.2144262647678618,0.28214854091941033,0.9380599204212489,0.2010865151031469
-0.01773644316201612,-0.039341487853282016,-0.2121870836986241,0.2713350770688906,0.9531260524291644,0.13389549705952436
-0.0774273539873391,-0.03534747925945486,-0.2144931571407199,-0.1855083120050174,0.8724967128403275,0.45203556525993854
-0.0908642465390204,-0.038904059687653134,-0.21351372038907013,-0.20799470535464126,0.89583795941703,0.39269906163876617
-0.08626624802254504,-0.03764229511683806,-0.21390783632147176,-0.13259083270102598,0.840751256807561,0.5249352295856653
0.07885551435597116,-0.04178565221765911,-0.21277656490401825,0.22189754810103193,0.9145657946944031,0.33812850415447876
0.08657517656728446,-0.04394534558962751,-0.21366332723250195,0.4697538296243061,0.8100109192423492,0.35101801985291714
0.09313671216143549,-0.05306794672175981,-0.20626388431175646,0.6071477874341434,0.7786184794419313,0.15850813129098143
0.09749059907288728,-0.05640273855913304,-0.20476944292550864,0.5381015018910745,0.8375957181894674,0.09423474164680597
0.1021166767504669,-0.05818624996251251,-0.20778043198231372,0.6566714097093215,0.7213428594952108,0.22010710739466155
-0.12840728019575431,-0.0713818083260421,-0.20811729145513463,-0.6731657554435266,0.30849597722117544,0.6720700095499714
-0.12959342993614079,-0.0664632573277619,-0.21121443881275506,-0.692474607803999,0.24408357900790856,0.6788977272059377
-0.13104023214302676,-0.08754807053423767,-0.2093160384041973,-0.7318031988689225,0.10219990166612802,0.6738095118241103
0.12823112476602755,-0.09644344012936673,-0.21326988979168987,0.958163448526198,0.2859133163766251,0.013280866948506925
0.129239074892129,-0.0993053646598909,-0.21731865600642625,0.9711535468526032,0.235412773299662,0.037968600224007484
0.13076267662370428,-0.10593013920323777,-0.21571033957925498,0.975510128654917,0.218791678529276,-0.02258739245705489
-0.13606442113602868,-0.13210763553598887,-0.20591644427785188,-0.9674768680875441,-0.18647115108850176,0.17092986727674683
-0.13721639312342276,-0.13094268371414208,-0.21252383339108627,-0.9834054015109881,-0.14492510807237657,0.10913537157687415
0.1337009816663596,-0.14299255592633958,-0.20230789527491777,0.8529973887830574,-0.32245461265791103,-0.41038820341832744
0.12938868507359483,-0.14859783545329952,-0.21157313491245236,0.8967796075933286,-0.3833437004470621,-0.220984032754198
-0.13186593020488588,-0.1469256202177299,-0.21197844431555532,-0.9611113716585462,-0.25889505331986684,0.09611598532570598
-0.1289459764655535,-0.15508848670284478,-0.20824105379418129,-0.9465794577020246,-0.27333753489974016,0.17109623687116654
-0.12977098793000622,-0.15942787985236895,-0.20952493512872192,-0.8873516336832006,-0.43102079668774324,0.1637930127399157
-0.1258052028612746,-0.16768572018557173,-0.2136302663639283,-0.8453291405590901,-0.5260477045219925,0.09323334536941555
-0.12812370089172032,-0.1629415938948052,-0.21158172833976685,-0.8675961145804959,-0.4495523195387016,0.21255515510615172
0.07891629073177603,-0.20178884373113673,-0.20853358112590814,0.40269447892957344,-0.8802100518582036,-0.25113227838614816
0.07692892355352539,-0.20157032751237583,-0.21357886407467533,0.4135871486253239,-0.8883666640746446,-0.19937487467798398
-0.056894380637712676,-0.21406943338210274,-0.22354394399071498,-0.2555333699086488,-0.951321206640119,0.17230977528833832
-0.06049467137229923,-0.2117595526119474,-0.21465445541478623,-0.25816650852146794,-0.9574665744328077,0.12887130294111201
-0.05735821645348013,-0.21181548970721406,-0.21133492110408697,-0.20836752413133303,-0.9728120568242701,0.10109241803771168
-0.05458366876301483,-0.21361879869258008,-0.21831682371745684,-0.20906091981146052,-0.9549175222283931,0.21077489781464118
-0.04103314834286385,-0.2149208441967091,-0.20997209441819434,-0.16039288440237803,-0.9859164982992761,0.047358008978197794
0.017513841329078267,-0.21669487871059828,-0.2106809474177965,-0.09470844543562423,-0.9913058217342174,-0.09134045193130598
0.022788347143206565,-0.2166877734873539,-0.21564286049320833,-0.01953059093524303,-0.9994312371351799,-0.027491057749089446
0.02293821591400696,-0.21666657827174862,-0.21080928441970487,-0.029617339712833302,-0.9982626687603771,-0.05093581596229111
-0.026263391953658097,-0.21691176133716944,-0.20312919467065027,-0.10887692656527978,-0.9876878058931648,-0.11233259968346274
-0.011820052039226502,-0.2169913928580376,-0.21715217983351828,-0.04824786361686738,-0.998770546103624,0.011381559307791233
-0.020154579120356717,-0.21754291069228582,-0.2015198449323005,-0.004071970808880134,-0.9916774247864192,-0.12868296011013972
-0.06078452640740306,-0.03467697460088071,-0.21279573899362605,-0.11404094728446718,0.8773962435588004,0.4660155513836073
-0.025640492444824012,-0.035997640308156074,-0.21232216626942105,0.0668975916349891,0.9793323545651815,0.19087391528246128
-0.04122278084835436,-0.036364662581196305,-0.20530027701587877,-0.07830801391504962,0.9955741912907498,0.051960413705532615
-0.03541226201046037,-0.03650526917488941,-0.20544584257520776,0.02611215580534673,0.99598619622933,-0.08561338820434301
0.06234016778020586,-0.038630472405532065,-0.20504170615887196,0.26952760811350784,0.9602787829025349,0.07224629798015811
0.06472394217595803,-0.03819038831361179,-0.21160858737143878,0.2467348638265626,0.9463802962296172,0.20853355097161164
-0.07062062800096283,-0.03737577287697179,-0.21034315668563935,-0.012121281439874732,0.8281875160990435,0.5603200092036262
-0.07930324680478978,-0.04089182700949975,-0.20789995017111124,-0.20382882067643465,0.8659783883606258,0.4566565917119636
-0.02335483251608312,-0.03809163487496501,-0.20615739328257723,0.08811631601008404,0.9961097703462671,-0.0009166643431949874
-0.10440330206112226,-0.045315022074640166,-0.2105230592478991,-0.2015464015812994,0.7940519866812347,0.5734635912219834
-0.09087750210469919,-0.04223141963674798,-0.20921520360324514,-0.25380825496315357,0.7753294939720439,0.5783126710436265
-0.10027601653316975,-0.045087422430591356,-0.21246362934257673,-0.12484047366827072,0.7966047322813745,0.5914691510477965
0.009544472075119045,-0.044468640363489735,-0.2112634530587003,-0.22915457632894043,0.9539684153403389,0.19347465642958572
0.008963824121184136,-0.04576420102289125,-0.19921667777331714,-0.416727941259986,0.9062545599685704,0.07099644716030895
0.013984071172356883,-0.04291702891587137,-0.209467148293139,-0.41543855426924176,0.9085631405334144,-0.04386145563864659
-0.11983457200068223,-0.052312627421661755,-0.2125014481937583,-0.31491561631890036,0.6153592397032535,0.7226071966914811
-0.12597688439762778,-0.05456928920891582,-0.21427964065257046,-0.4925802801655971,0.48675049674550996,0.7214143202834146
-0.11788224777953643,-0.04770790208554953,-0.21598827488708122,-0.40601411946481447,0.7290358254419276,0.5510529012875433
0.09886233409677982,-0.052914737735600084,-0.2093670252827372,0.5165297069803978,0.8062572471990511,0.28835102418017
-0.13305515188781877,-0.10580398976742877,-0.20741945683337268,-0.9756657883275589,0.0495390639371785,0.21359342366138256
-0.13499397020771928,-0.10551289114892531,-0.21536802301576558,-0.9450874626256759,0.013693270110357775,0.32653052283277667
0.13307162112931245,-0.12121443142217014,-0.2189473234562296,0.978934385393978,-0.05252275810727577,0.19730390004791873
0.13364534653360507,-0.11313890389342154,-0.20974706272597998,0.9756337485372706,0.1094948683677351,-0.19013064591550236
0.12904109388120943,-0.15355248125819893,-0.2062765469777965,0.9186487503941816,-0.3541011856838772,-0.17520509038404333
0.12613535301769138,-0.1562631926909428,-0.21154586650940474,0.869762641644586,-0.3749875111822788,-0.32077611141846574
0.12373384844353671,-0.1601213075233987,-0.21195307501931535,0.852007236316019,-0.4730268198352528,-0.2243419198047627
-0.12040126124200257,-0.1734088351094865,-0.20534638974182662,-0.7626996742320465,-0.6396453663658609,0.09561909962457178
-0.12104408927252977,-0.17668898634584318,-0.22244072134620851,-0.7360354482778407,-0.6662451747493282,0.11987153958165107
-0.12104385339404941,-0.17830528156100411,-0.22910215991726562,-0.7610611178525858,-0.6207263031016917,0.18837417957533215
-0.12076166322105608,-0.17501469991262747,-0.21396922181554204,-0.658362794194069,-0.7318280143544587,0.17602894258328092
0.10158406488873839,-0.18353694123289413,-0.21019416327185558,0.6701764250754059,-0.6742110823607527,-0.3103272074683284
0.09847451552804362,-0.18394893560732556,-0.21947709280842947,0.85222822320549,-0.514872757594529,-0.09280678347523566
0.09187477865644945,-0.18999634480418084,-0.21176702076567505,0.4345254852089151,-0.8843714249954737,-0.17051329964384562
0.06934424029842326,-0.20391848214227,-0.20795268034630046,0.3627337391162568,-0.9141933555333631,-0.1807615645135577
0.06978495203515034,-0.20315246428287903,-0.21444208752869504,0.4175346318267375,-0.8774192201487779,-0.23622096295380104
0.05112769439824634,-0.21235407980903734,-0.20873360180587228,0.2459516140497484,-0.9604289850507919,-0.13070565489155098
0.025333836079526165,-0.2152875347807453,-0.2041609300259914,0.13439832895113912,-0.9829935063443556,-0.12514334045393927
0.03526810132201916,-0.21369857868013212,-0.21400310277652496,0.36804528741906173,-0.9298010474646934,0.003560694058627814
0.0006488378621521593,-0.21536107907593804,-0.21728545309356462,-0.0856606922562275,-0.9960166843939445,-0.024759043016184045
-0.010959762916016736,-0.21670791743523338,-0.19861649143373353,-0.01828613992624452,-0.9882316759394384,-0.15186761259902243
-0.041058942292710544,-0.03611261787431968,-0.20977996686613126,0.04774805597028048,0.9910428624342931,0.12471635004722452
-0.0123022495753764,-0.039697563615115686,-0.20933000380502395,0.34482097183783084,0.9339518345154203,0.09398121187819884
-0.015376879434314771,-0.038447697287023096,-0.20548810913619442,0.3496333299600074,0.9368687484692614,-0.005786425728940465
-0.005269225657818282,-0.0423690555591676,-0.2146416314611237,0.3103796966115914,0.9403576610335052,0.13925485006595584
-0.08315103318638356,-0.04403951012550673,-0.2087733367228493,-0.05263984070036131,0.88479618788202,0.46299541367111385
-0.06671909621579991,-0.039627848980785293,-0.20942495840405756,-0.09333994904869525,0.9036497543873084,0.41797700332356114
-0.07434514166405098,-0.0419605643630509,-0.20778212452239186,-0.29680966699689465,0.8912712718253681,0.3428404025140315
-0.0701334057093516,-0.04129192996948541,-0.2057776581500587,-0.24988208005693172,0.9556421109677188,0.15590735008838918
-0.10145555240409075,-0.04978688778447209,-0.20931121396550528,-0.24053644506818592,0.6517233668638971,0.7193044360196493
-0.09628393115750192,-0.046986017339531255,-0.20949101276287976,-0.3802207978102655,0.729969736934413,0.5679580337247012
-0.11428492813518258,-0.05525957664155061,-0.20762011527484928,-0.40215228680797366,0.5159315619127736,0.756365098108951
-0.11037425367712159,-0.048198540495308306,-0.21051907399250805,-0.3546719167258384,0.6430236393768394,0.6787697921155481
-0.11048751479299862,-0.05664148953844088,-0.20479185110955744,-0.4434768589865438,0.46465908075805157,0.7664334375616133
0.11144875600073453,-0.06452286038068576,-0.2069935165137518,0.7088206663829517,0.6792420848709028,0.190272050098425
-0.12844095222656582,-0.09061939875887687,-0.20313808967061703,-0.9033438197107697,0.3415222513822782,0.2594850577608201
0.1306589635271093,-0.09857582725776719,-0.20988057167507224,0.9333720599656148,0.30682227678410057,-0.18621677729078498
0.13289829785928264,-0.10786132652855376,-0.21083124518514051,0.9760402277623001,0.17146512984737836,-0.1339596321140788
-0.1347699097452583,-0.11240488498233119,-0.21123035425802225,-0.9607078073424631,0.15090875403263437,0.2329529069738229
-0.13596450589573691,-0.12176965362679201,-0.216090949595117,-0.958909571854717,0.04873835973562551,0.2794941954597337
-0.13536545594957072,-0.11639035177941107,-0.21385834962846412,-0.9767124194049641,0.03019471394783289,0.21241734634843296
-0.13444661171223526,-0.11961034167416051,-0.20699479548134087,-0.9971759256837783,0.029966546397586,0.06886348331083031
-0.1372033279866742,-0.1245046819680546,-0.2122263299167897,-0.9867146834153093,0.015587662822489648,0.1617131976690776
-0.13688318257576998,-0.12008436949288492,-0.21130834041974156,-0.9842764331916619,0.05178628331629175,0.16887298162756684
-0.1360345990885849,-0.11528729190412787,-0.20702291461619535,-0.9772771056140852,0.1635327541866563,0.1348573214574683
-0.12380449872933963,-0.16682095789575757,-0.20005745708017714,-0.8386918054364412,-0.5443500542209471,-0.01670550697867086
-0.12298430493063461,-0.16954024520140043,-0.20502792769543085,-0.8020863201435932,-0.5944905981810428,0.05690750137596418
-0.04927383559805963,-0.2128306124097177,-0.21787867740539713,-0.13444311731360462,-0.9620161739599409,0.2375919385132353
-0.05320032435551179,-0.21128091034323243,-0.2141977960050095,-0.19620996583591646,-0.9681633303845004,0.1554394255183061
0.05479021429861822,-0.2090023130153783,-0.21127514570699346,0.301178567087494,-0.9449973424903649,-0.12755976408441544
0.06121531697725483,-0.20623736727786018,-0.21825913666285895,0.3755654182816609,-0.9239280264867327,-0.07285340392358149
0.056750337788082424,-0.2097419731438842,-0.20320263872883793,0.359601091725231,-0.9171715842161365,-0.17170713420380712
-0.0021995463017815977,-0.21700155759070408,-0.21313238504963072,-0.016312505788947773,-0.9958827605296471,-0.0891707880123038
-0.006683350003933171,-0.21725269809303366,-0.21008095624736595,-0.12772571687231216,-0.9896837110499825,-0.06490218279679275
0.023184589291073858,-0.03781105371282297,-0.2110422438615736,-0.13390715709624498,0.9753733310905965,0.1752590604666
-0.05800086705169574,-0.039269357133545554,-0.20831143446390504,-0.17057496932262828,0.9144893428375025,0.36689701780910866
0.07593777996409279,-0.04257717517232402,-0.20582236597435255,0.17509493462185532,0.9685541068524315,0.1767617208816914
-0.004468429364941123,-0.04286738562654557,-0.20581530351743949,0.33715308870879507,0.9414351960548725,0.005250371724276818
-0.008137924035545934,-0.041161511344875557,-0.20298692327256712,0.4351364736843281,0.8963962024571364,-0.08443990460672388
-0.08220306944557698,-0.045252955105173576,-0.2039348118796438,-0.29452269091104316,0.9539832918378761,0.05632285000502088
-0.10703396098089274,-0.05040783548330388,-0.20753612130116247,-0.32712176900504925,0.6082296349588834,0.7232206159954172
-0.11057189242629384,-0.05382510565686331,-0.21005783125714678,-0.32182768078089274,0.5290301385711871,0.7852095620702427
-0.11944049730174008,-0.059070056526760145,-0.20780861939014617,-0.36746094094240933,0.47983614256517804,0.7966992739860439
0.1103944410881128,-0.06511245856638417,-0.21305006132549034,0.6346279425500637,0.6297449747963564,0.4479605353749474
0.105299602299321,-0.05794657004839749,-0.215973604440634,0.6645261747084857,0.5547476776706777,0.5006595422503172
0.10659381832601492,-0.06305236715378862,-0.20707598171645902,0.7272341439022434,0.6371070186927047,0.25539214293956863
-0.13109746134018727,-0.09354779481742982,-0.20703842263000843,-0.9107688883559456,0.2326490237401228,0.34113701610297714
-0.13163819530903909,-0.10152600795055827,-0.2037676616358406,-0.952194930538228,0.06514205050231922,0.2984649519016472
-0.1339437350131132,-0.09562160248856574,-0.21193716788680414,-0.9184981195155439,0.2405782185189569,0.31382053027272566
0.13357847894512428,-0.10987399139743069,-0.19873846080392274,0.9424722384266918,0.1985163399441872,-0.26895602348738157
-0.12889263126026437,-0.1516583124009165,-0.19898116768697327,-0.9856440233581666,-0.1652610437315599,-0.03456366073032739
-0.13032921548609247,-0.14771367615403513,-0.20238731974359214,-0.9569540651677696,-0.2420231100555814,0.16019903669468172
0.12555102761647047,-0.1517362118926129,-0.21058980687515808,0.8900596752164409,-0.37894558604724426,-0.2533653831305975
-0.05527396177842865,-0.2105024069371257,-0.20219157311101132,-0.1559275448404871,-0.9847275556346554,-0.07744831782430586
-0.05601224734100942,-0.2099091530515258,-0.20679024658120795,-0.164141156521038,-0.9855869140279031,-0.04094039121565393
-0.038987150116029046,-0.21373227025077773,-0.20519807050262864,-0.19088458961937324,-0.979634535130725,-0.06228363368535832
-0.03419156361703636,-0.21435293540619552,-0.20846542272263952,-0.11969523876276537,-0.9928081969404061,-0.0022212396233556968
0.03620669416523538,-0.03580775000260581,-0.2107351612048202,-0.09276381503180252,0.9950914587205556,0.034465394269359385
0.0368019273996657,-0.03577846994450494,-0.20572690966220697,0.040987942838104585,0.9931564921335352,0.10936256523560305
0.043491575765616505,-0.03624966738895268,-0.20355048996785766,0.030170134853356477,0.9988718266068027,0.036672018953419865
-0.030988945794892232,-0.03797918983660986,-0.20979447395497963,-0.0010261543703719426,0.990797313420638,0.1353500303866025
-0.03629866933294263,-0.03802464570781681,-0.20960007444573042,0.05823911524668274,0.9982433087248503,0.010885864290306208
0.0569568353721364,-0.03955483102403966,-0.2020383796013563,0.19528085086854585,0.9806554450389278,-0.013427114342217628
0.0024517072290570216,-0.04665431074329738,-0.20269151750098852,0.18678859490403812,0.9822077965649672,0.01943875460946463
0.0049517902774628975,-0.04627981794344534,-0.2069458058948594,-0.06315056665047691,0.9884038457064566,0.13809360493669054
-0.10614544862139524,-0.05614198506909735,-0.20604612439331513,-0.41180909773195057,0.542913953348279,0.731886402582354
-0.1226580131686868,-0.06950034334274227,-0.2051082686024577,-0.5108400376283033,0.36238794810183583,0.7795623329961849
-0.12411911411266827,-0.06133670529204336,-0.20926714049781578,-0.5440559660739038,0.39712715594023046,0.73911645076687
-0.11928159832351475,-0.06457149687696087,-0.2048639746347352,-0.26545127252913875,0.3584167162074899,0.8950268596280787
-0.12650177174794158,-0.0754192292334452,-0.2052652063224954,-0.7580770085280832,0.31990681582603825,0.5683123070365078
-0.12631624269563813,-0.08144921796909697,-0.20627835256430518,-0.8701035624650585,0.30448178865840203,0.3875701626299351
0.12862550292327785,-0.09126371326590549,-0.20415941518808747,0.8600388086340377,0.4592417347434044,-0.22232920796245725
0.13193694059222807,-0.0969616857459958,-0.2012554915057393,0.9205341557471814,0.32296755903172264,-0.2197926839453813
-0.133446375795655,-0.09658508542400898,-0.20362930641372004,-0.9281503600100378,0.1218259851414357,0.3517034810142711
-0.13172577608753652,-0.09852455946953198,-0.19953527419891037,-0.9575680698856666,0.15623672357201102,0.24218480080905594
-0.13527999340794927,-0.09105442251204691,-0.20965469186390004,-0.8151014796186151,0.1105259678645043,0.5686770510150372
0.13370728208966878,-0.10773245353438901,-0.20580516149287859,0.9656164099897756,0.24496827507520677,-0.08703730789227945
-0.13389951566735786,-0.13880923774359008,-0.21470369904395328,-0.8881593152273035,-0.18201923397262798,0.4219502686798346
-0.13503810137301187,-0.13359690451183281,-0.21564326420326127,-0.9621163257523747,-0.15620878874074748,0.22345243350856378
-0.13238304538562518,-0.1515624879740811,-0.2094311491424981,-0.9504918905365214,-0.2963601036720076,0.09346579575345437
-0.13298019844040565,-0.1521058874100157,-0.21493939523151262,-0.939877107743956,-0.2960815990108266,0.17019609004336123
-0.13363500856727578,-0.14627539857562943,-0.20686388622991292,-0.9287324001238274,-0.31647924990357673,0.1931243468356699
-0.11036658508640407,-0.18440454799689251,-0.2054239745427235,-0.7233676553543174,-0.6858901433691112,0.07933439617402624
-0.11607976376744503,-0.18205812171294322,-0.2219913790742957,-0.6034732017760345,-0.7656331006459948,0.22276905066319594
0.03730174555683629,-0.21612736093351848,-0.2024222649702358,0.19430888467430688,-0.9348854941925933,-0.2970406875916125
0.03443381532450212,-0.21718425346767617,-0.1979468976314357,0.10304023350083986,-0.9634882775848519,-0.24712962031425462
0.03509979362897979,-0.037897096990204285,-0.2006723090765337,0.03953855811311194,0.9989644154777445,-0.022512197394844207
0.04611276876187685,-0.03791339468368492,-0.19608165909436928,0.12658558081975887,0.9884674479729437,0.08311555225335518
-0.0534775509947376,-0.03695886498228777,-0.20561822075247646,-0.10573873186796984,0.9923107396167915,0.06433285804415775
-0.06096556166582151,-0.037729758103736896,-0.20512363220744007,-0.2678018476125228,0.9425630005718195,0.19964258155104836
0.0019076923717849235,-0.04454666831714452,-0.21022019807674994,0.08484174128631182,0.9773022579324314,0.19411897273496423
0.08673132580336136,-0.04631409856871328,-0.20738694606391025,0.4842262396324004,0.8161701906787526,0.3152636495044641
0.09133137561438726,-0.04860167317577881,-0.2079923097962237,0.5504586806356674,0.7924383344145205,0.2627484102010531
-0.0984090686119582,-0.05465773145739923,-0.1999959962799053,-0.5678622973665347,0.7446085441829445,0.35084259598765527
-0.09670284039932572,-0.05116831089180406,-0.20473191623308892,-0.5010478897343781,0.7884679050820714,0.3567483354526213
-0.10313114997203153,-0.05841524141804461,-0.19961572627511512,-0.44744521187474917,0.8013495608007588,0.39702854277090954
-0.12942865710789303,-0.08586506747805288,-0.20223475439339833,-0.9069574454919169,0.3451143206683942,0.24150423958259867
0.13023848308222108,-0.10373857361767734,-0.20971457190025444,0.9539477217919823,0.29782397234383007,-0.0358416738619742
0.1312732941790468,-0.10107164360470335,-0.19949129436008964,0.9376547621384136,0.2531192924841311,-0.2381893591483214
0.12983423201296423,-0.09912782441328137,-0.20496703121476964,0.9228536587385462,0.29697757563696486,-0.24524568114784373
-0.13428807892775013,-0.1078128011229686,-0.21180359574570878,-0.9713753089259222,0.03712580593747271,0.2346309522261767
-0.1323234082961431,-0.10764115454066925,-0.20286827912556504,-0.9664966017810585,0.23150471741791367,0.11085975175381801
-0.13558550296123015,-0.1289103843697266,-0.2027290943132445,-0.968151299012141,-0.04111489790384039,0.24696685484384454
-0.1356177281542876,-0.12433778549584537,-0.202473672536926,-0.9725786124063901,0.0026557989243153057,0.23255921702167476
0.13423607952172534,-0.1219641490351995,-0.20718863783398217,0.9497319621548916,-0.021499487023458747,-0.3123251064502305
-0.13281510607360156,-0.12942127226807787,-0.19902231685292923,-0.9842602084900355,0.0858668017392484,0.15446272800330987
-0.13469202090620155,-0.12869608052478482,-0.20872284978710703,-0.9906968793770331,-0.02703821241167824,0.1333740164431943
-0.10583334946405165,-0.18937945064983108,-0.21385767988607712,-0.636666615109205,-0.7692372928623771,-0.05412585773130218
-0.10713678081593866,-0.18759991056538788,-0.20766001511578788,-0.6584094602090305,-0.7217133737482169,0.21360428099693993
-0.1055990975516809,-0.19027598392618572,-0.2189543811327579,-0.6732783986766897,-0.7381452281405171,-0.04286980346043956
-0.09883537179083761,-0.19386699678668295,-0.21214170488925266,-0.5447949715920678,-0.8190890119682721,0.17969871841734958
0.08841653898674257,-0.1951811805814212,-0.20469489437647037,0.4130953843760905,-0.7523274907997551,-0.5131817903960683
0.09925800897538035,-0.19269344447886566,-0.20358330681549044,0.37418430894733695,-0.6278129658375065,-0.6825225145472623
0.04811304484833891,-0.03857249072503972,-0.20906570972081207,0.028436998171107012,0.9988998303399573,0.03728895388477626
0.05412814121901901,-0.038743811937518725,-0.2103366372944758,0.10027706397691379,0.9828992903175517,0.15444576890748202
-0.06988536511246356,-0.03951411733702485,-0.20023356085589208,-0.24444130333062217,0.9692900094348867,0.0269318925392152
0.02013881983486629,-0.04075505215099681,-0.20600215662345867,-0.21814070763586868,0.9739351286148182,0.06216909941570895
-0.07494736073307276,-0.04097866800219935,-0.19775890051884987,-0.2914078883808099,0.9550798460452598,0.05388812733432747
-0.07430959221728378,-0.04045004447050103,-0.2035757350697355,-0.30415426873580215,0.9458488409811773,0.11340260501572667
-0.0009603530506429722,-0.04406050787716913,-0.21608976287732098,0.1293001402980922,0.9746729407910446,0.18246679755130954
-0.0021795198406723963,-0.044175461238510294,-0.196898077482787,0.40018852271643096,0.9119728846456763,0.09030284578619382
-0.1185036668973843,-0.0739054341309401,-0.19945749105578478,-0.7396569765093872,0.5777883240751587,0.34506261701814533
-0.12351734987641742,-0.0802863589088617,-0.20296242874685852,-0.7748961961034454,0.5276974454473773,0.34795300161476145
0.12401097741516708,-0.08683920205302109,-0.2078041724880217,0.8917055739159777,0.45180883442087105,-0.027017523691685464
0.12531641086090164,-0.0876058005215244,-0.2020072524106521,0.8906415347914434,0.42432571291817084,-0.1634177036334447
0.12305256218742275,-0.08328363900788434,-0.20106779425795543,0.8486963765350558,0.5085171464890895,-0.1453436348205889
0.11848723213070271,-0.07699325702200172,-0.20808316118505343,0.8112686961023553,0.5758318813668892,-0.10129534602267397
-0.135270985228182,-0.11105445633374603,-0.20568355270900027,-0.9850185885152731,0.15065490707362586,0.08391352247413011
0.1348046772947204,-0.11199881151305426,-0.20365689194462344,0.9895315187600755,0.10793358157695637,-0.09580039325779906
0.13585740876017074,-0.11779027572139293,-0.2022517669050246,0.987422488412911,0.10511903920300389,-0.11809664251574552
0.13250007077413573,-0.1271131155353014,-0.2091660601247145,0.9509590475711391,0.004554528846419992,-0.30928327809563017
0.12932862614018162,-0.13835580762239424,-0.21472214868133727,0.98905072947086,-0.14091702908292436,-0.0438297324609873
0.1351163617706528,-0.13798128626543948,-0.20016072171217958,0.8818241007703947,-0.22213627939989677,-0.4159828466113186
0.1369465435051313,-0.12782238575601387,-0.19856341836512292,0.7690349400664046,0.14601262199568665,-0.6223066568621984
0.11646821693681897,-0.17237036120434002,-0.20881488379697694,0.7842746033386915,-0.5141972471617205,-0.34715203811766165
0.12322737970131198,-0.1670470690564197,-0.20435448093975236,0.7700692985956494,-0.46554966487831195,-0.4361843473717228
0.11611623184444016,-0.17743342445966998,-0.20343306274490333,0.7035847492952901,-0.4917276291667355,-0.5130033521071234
0.1054232955480106,-0.18165099897500253,-0.20624221443526072,0.6051824144840523,-0.7245821964770935,-0.32974973199031327
-0.08598221001672475,-0.20134181072169288,-0.19820356337613232,-0.430304036122097,-0.8810544109586441,-0.19642189650685493
-0.07908695759058167,-0.20441181445025422,-0.19904657080142393,-0.40492897114141174,-0.8944348161631214,-0.18978642724283842
-0.08436550544044008,-0.20135067296748135,-0.20329616890645616,-0.3918721535139239,-0.9168144926335197,-0.07672940373482352
0.08394440435392732,-0.19862876185661307,-0.20171257527270553,0.49546874518668294,-0.749853508760333,-0.43844091727728984
0.08118515238783548,-0.19885505027731493,-0.2055933182760711,0.46224109411677017,-0.8318034324553633,-0.3073047683736899
0.07899591756986771,-0.2012275720510761,-0.2020665537341298,0.40938771719485517,-0.8384762298893192,-0.35966555147884094
0.07436406908691547,-0.2042207876180008,-0.20070892778548197,0.293410406782726,-0.8558872881333625,-0.4258723790096204
0.0712631648158563,-0.20650317184499684,-0.19862492088581407,0.30509072821862127,-0.886621296015114,-0.3475950589515205
0.06593444474472922,-0.20706367596351563,-0.20187437389293117,0.30585900782316033,-0.9205777356415974,-0.2428721885569057
-0.06011090408256893,-0.2109831509462058,-0.2059905885205666,-0.27764808735660734,-0.9605407804396411,0.016521159148887563
-0.051379385937105254,-0.213299244414295,-0.2023731069842804,-0.1977095411382031,-0.9571565691378628,-0.21157088528234935
-0.04112971888200655,-0.21378418652046496,-0.19701425208595896,-0.21128811091054836,-0.9701071277368314,-0.11937124822186855
-0.030530840255760416,-0.2151812188947971,-0.2032580295246943,-0.13953967885148694,-0.9873578189776037,-0.07518786690559559
0.025284609269055937,-0.037038092871209904,-0.1956232965341233,-0.24752751388381936,0.9688721268185215,0.0041148201237335945
0.032158439690217436,-0.036055191376617265,-0.20931995945704374,-0.10521917674169626,0.9932146231624394,0.04953420214450607
0.03226420519304634,-0.035329700600819296,-0.19638524213197706,0.0071078983488060184,0.9952751780062784,-0.09683386714179001
-0.028088020069166057,-0.03646350596766154,-0.20390486100618666,-0.04562323761778601,0.9968993300650539,-0.06411119952954927
-0.025502641555264834,-0.03529458524200184,-0.19311763862034695,0.12508703415786973,0.991841440052813,-0.024572172869938437
-0.031922248336384705,-0.03575417977303939,-0.19786816043127,-0.09244158474932951,0.9898486191764517,-0.10795491894075276
0.05206257669859675,-0.03674108767170497,-0.19820476917461358,0.14028465421856398,0.9874939823341838,0.07194338499509689
0.057580024390310035,-0.03781966793390477,-0.19761113769864364,0.11774556972312807,0.9926322885761689,0.028585319424722835
0.055125899184297986,-0.03750435921131465,-0.2054530693784757,0.07481974022757797,0.9971588478441632,0.008731474009464394
-0.0496910559247126,-0.03802254388007792,-0.20226299296626749,-0.06346905046075324,0.9909186223767766,0.11854097798028088
-0.049637808999602975,-0.03790512078199294,-0.19725616843106197,-0.12309772651842371,0.9852802877286483,-0.11861578452865149
-0.0589062727505847,-0.03957288502050159,-0.19538825123730585,-0.1774862344963936,0.9840795653331581,-0.009276079882892248
-0.009242720471121351,-0.04331342095878363,-0.20748291468782437,0.4855821079426355,0.8704696405773568,0.08057680360447415
-0.09330814066429316,-0.0478434350095953,-0.20648007051648423,-0.46478898524169154,0.7781009469466837,0.4225282423207622
-0.11353778787586918,-0.06490835922422523,-0.2040268837577276,-0.48068670945305114,0.43619887070333513,0.7607041688806058
-0.1112975015425412,-0.06140357483741482,-0.20531094563780428,-0.32099203459336745,0.582700500287645,0.746608492244857
0.11881845879194697,-0.07433111083825515,-0.20431532431239607,0.787831382531828,0.6036954550519069,-0.12195700163442635
0.11458552401908889,-0.06757137245517637,-0.20175746709905948,0.7547778831706723,0.6495556437539134,-0.09158500283255186
0.127081554640956,-0.09256768751325797,-0.20852494124186144,0.9012232075958653,0.4192634382085498,-0.10961249687953255
-0.12956002298805774,-0.09943436727869528,-0.195559246712011,-0.9774320788690574,0.12189333108935764,0.17253563989406115
0.13132323870506074,-0.13936644789942523,-0.2071742584496423,0.8733744945502248,-0.3060492021542104,-0.37888108705754986
0.12971330678297843,-0.14535447393471346,-0.20611925015479965,0.9254475356283827,-0.3035054870353534,-0.2267846514621007
-0.13160248551156686,-0.15155119779908438,-0.20401122565185126,-0.9585700592813322,-0.23873009523251745,0.15540715260134072
-0.12998555166293158,-0.15534425918717487,-0.20129458946723375,-0.9418122493257283,-0.3233954870682861,0.09167903775606584
0.1266091392752613,-0.1587397119006059,-0.2003839201600996,0.7107139401456535,-0.3974233859847541,-0.5804656299515534
0.1247124998143487,-0.15585458393258447,-0.20712131734092049,0.8299574858321561,-0.4943255844565403,-0.2584816981197438
0.12472484473375357,-0.16357480856901094,-0.1996187136307313,0.6719086263562023,-0.4639931955370936,-0.5772773270477526
0.12109573884438163,-0.16361581825026114,-0.2062761350049807,0.835885804324642,-0.466109757808385,-0.2898906963052711
-0.07915369917543023,-0.20110017152407314,-0.20416777720331897,-0.31055520854924273,-0.9480677206607726,-0.06872451879805051
-0.07327708955562179,-0.20475813684069574,-0.19964024030559507,-0.3835609113641162,-0.902542724235818,-0.1956978748032701
-0.06857851640113218,-0.206018415256069,-0.20552682911614922,-0.3801911772029444,-0.9241412477759183,-0.03765133379055765
0.07480732991735783,-0.20490496466117555,-0.20644000862485856,0.4310121601399449,-0.869882731010919,-0.23985944238341655
0.046018557897388734,-0.2120125512512973,-0.20672472955322557,-0.0012322579956349916,-0.9856641831985478,-0.168714550349908
0.04623685421173192,-0.21316107618605987,-0.19947812167167972,0.20137471188135692,-0.9298289667922274,-0.30800376284844316
0.04158065339193152,-0.21359520681162297,-0.20433042276364644,0.17452800274339275,-0.9485638129696505,-0.2641338088599802
0.0092355486144412,-0.2163100224411894,-0.19890254202509286,0.020438805994182043,-0.9985471815890695,-0.04985761075360582
0.013158011979711146,-0.21550246551883218,-0.208115485861289,-0.02820052777815992,-0.9955785072334412,-0.0896000344188896
0.016629011221457483,-0.21563098508127052,-0.20439718839298207,-0.015215864616252385,-0.992610305346816,-0.12038795281622017
-0.01631755002836522,-0.21560597300190007,-0.20564746637601844,0.002056216621725645,-0.9946296023375428,-0.10347814323356354
-0.011141993524611784,-0.21630521596901628,-0.20366836501909608,-0.08597039691895991,-0.9908853369450659,-0.10370795476172491
-0.006565613155717561,-0.215467380126468,-0.21560223192235706,0.02030727046912234,-0.9995242737388652,-0.023212948388509957
-0.016237271562498448,-0.21660429641744955,-0.19633702292474237,0.04940199854269981,-0.987782288163237,-0.1478025498121971
-0.026239381542358834,-0.21544846483608487,-0.19832455031110624,-0.184834179226671,-0.9775085306241472,-0.10155490508401548
-0.011178714184839445,-0.21583256010055515,-0.2080775331997545,-0.14282670272783177,-0.9884590386169279,-0.05049021652156566
0.0161287489087956,-0.03926044285227999,-0.19281288545838005,-0.46636405910309087,0.8842205173052453,-0.02566400501349923
0.01275836628893038,-0.041545980508395135,-0.19727032330129396,-0.6746462951847526,0.7379241635581995,-0.017897073236125303
0.01494850338337134,-0.0405753557775263,-0.20290513492332363,-0.5293720836044595,0.8439955576154379,-0.08623627905747802
0.11617960073435693,-0.07252223445146645,-0.2007944747191298,0.7588841228496508,0.6392835679969685,-0.12414269118953955
0.11255683002604822,-0.06946046503516999,-0.2081477852074976,0.7801724666249286,0.6226867271726513,0.059934648771698636
0.11927671135994648,-0.07631724839485787,-0.1972918446872487,0.8104251490744505,0.5439835425561267,-0.21746949941484048
-0.11589523875760303,-0.17553302356300854,-0.20050511942961338,-0.7407960355877797,-0.6672417814572793,-0.07752185972450078
-0.11968235468987924,-0.1695569573925125,-0.20146199941633705,-0.8259516230741348,-0.5596971354951257,-0.06740202415175073
0.1284197046615212,-0.16577425671147406,-0.19708136231413734,0.672093659801283,-0.4097332395668493,-0.6167728794693976
0.12268449044171938,-0.17248762836364173,-0.19875121368743476,0.6892384201270312,-0.4455565513683866,-0.5713403186836234
0.12029009019472563,-0.17697756011942892,-0.19773429580421506,0.6922928682790053,-0.4934976252947663,-0.526489010672069
0.11124942850200081,-0.1851433895108317,-0.19864530410751235,0.563218386164536,-0.6405497792916365,-0.521997154911453
0.10760826759189905,-0.1858931781027141,-0.20259511701692656,0.5577597233661619,-0.6509029931325346,-0.5150042567995041
-0.09508970822524393,-0.19549912125950897,-0.20838472819665663,-0.5740780267714624,-0.8187996691933257,0.0012332506169690247
-0.09168115247583086,-0.19678690397558377,-0.20488632782800995,-0.5864097946459507,-0.809297287576385,-0.03408009778155144
-0.06018030780606288,-0.21113278417472447,-0.20076415942327608,-0.2517268748058856,-0.9599572095795488,-0.12294607060296078
-0.0569118781652233,-0.2121107858113725,-0.19769134149085768,-0.22004933052529962,-0.9714461364819216,-0.08871694341959321
0.06618578262158162,-0.21094045169962394,-0.1975280609202114,0.15767205485450003,-0.8755379612474022,-0.4566977135181451
0.0751918322689116,-0.20867062144211512,-0.19730409619307082,0.2932148827557541,-0.8854426797540726,-0.360577721719543
0.07115715455603411,-0.20776151290030234,-0.20355146946052574,0.3520153146364662,-0.9007504177643384,-0.25442858164671556
-0.050346080661799374,-0.21153003810000215,-0.20770198529968786,-0.22380263899286046,-0.9737443775470827,0.04164451915048387
-0.04621547801031229,-0.21266628618916686,-0.2019601322220122,-0.22725377496710922,-0.9701313137370345,-0.08485844607376355
-0.037414019590134975,-0.21588376047184593,-0.20002794758819642,-0.16116725922860306,-0.9758342440219249,-0.1475555581701299
-0.0421138100575351,-0.2151104224668201,-0.2018825079732792,-0.17436958318620277,-0.9782137416636523,-0.11266376560308677
-0.012717595303277122,-0.215261795228873,-0.21261879253888621,-0.05347089451597356,-0.9980816197614658,0.031208071616014747
-0.021596788137764226,-0.2153068624134633,-0.21278152535025818,0.058813469257124544,-0.9982663340347004,-0.0023026434507185025
-0.0170922201764447,-0.21527249186719877,-0.21497109457230107,-0.044748017199303734,-0.9988043454168732,0.01968488082518076
-0.02512298642387551,-0.21534917413503363,-0.20802550452360163,-0.05032425218731281,-0.9984016283558548,-0.025722716383877194
0.0244103327048124,-0.21789541464265746,-0.19952271865093874,0.053838858070323806,-0.9828352110282724,-0.17645488183865748
0.016703090577229594,-0.2177284934156477,-0.2001064563152006,-0.019792788188830252,-0.9907123382603004,-0.13452623667716349
0.024238715727923417,-0.21870857396791626,-0.19372053057646044,0.013422608959455759,-0.9901560802182959,-0.13932254080177026
0.02062374035400819,-0.21740354098070597,-0.20272725999225988,-0.012319218334362142,-0.9942331937832316,-0.10652977630327058
0.012562825277506268,-0.21822832115028495,-0.1962235223420645,-0.030379755820751735,-0.9979213925057525,-0.05683277941163049
-0.03348284135357307,-0.03776086144902967,-0.20164000000249344,-0.0222705008450886,0.9897665001247016,-0.14094786278268964
-0.056817066945277675,-0.039306991014369894,-0.20282101221493992,-0.11690283533767058,0.9924799037502532,0.03629556091179263
-0.08882990054512828,-0.04538573738952975,-0.20331076469035828,-0.3443229777042976,0.8728881747221084,0.3456991776894351
-0.0929841319930968,-0.04749988656903714,-0.20164737478353906,-0.5115022775018835,0.7524306889982166,0.41498611827873866
-0.09534541750093059,-0.050318790409007184,-0.19782459575005873,-0.5635101913819965,0.8013699104648176,0.20065525363228295
-0.10087185068682503,-0.051184922209651686,-0.2039954975474807,-0.4313999731070815,0.6778907382505487,0.5952799427137919
0.10502377296815678,-0.05963598935602924,-0.2038868491510191,0.557893797292942,0.8298481433600313,0.010323270023143594
-0.13092039318557944,-0.10524591295890973,-0.19503466650157272,-0.9593193324992002,0.2796140179138871,0.03901819164622168
0.11878702017854867,-0.1716840683509288,-0.20079240596045966,0.7972088891975426,-0.4389599672815999,-0.4144540192935241
0.11553611213968436,-0.17278312890540334,-0.2041446750815526,0.7217885768691559,-0.5800541888253201,-0.37756905107198385
0.10304954461762993,-0.18601541197502403,-0.20286649252486055,0.5311068070509876,-0.6622195169548134,-0.5285743759096146
0.09647214261647087,-0.196621768019657,-0.1991925513431633,0.46492731177172686,-0.6767578092974277,-0.5708252467469024
0.08979434818888114,-0.20030807726686733,-0.20024088847386912,0.44991738412215276,-0.6800049522732244,-0.5789366220481904
0.06502187160228635,-0.20824708536285874,-0.20734963635921544,0.3275660683506422,-0.934211937706863,-0.14123925202043014
0.0599291139807123,-0.20990127425357513,-0.20686234851532936,0.289943899738985,-0.9529096002157487,-0.0888584763588231
0.04941289085953742,-0.21369605395318053,-0.2045363132217887,0.20137296808697205,-0.9501390198054833,-0.23808563746458677
0.029854877242735913,-0.21681390859129746,-0.19300533397125616,0.018957016548051653,-0.9783855421272872,-0.20591833934812984
0.030632778611221555,-0.21507128201562214,-0.2026290690736194,0.048419273764287195,-0.9744649519205424,-0.2192569985351299
0.03456608560503457,-0.21404966230844266,-0.2066778027847127,0.05388016339000322,-0.9764750992804473,-0.2087901062749557
0.011751776177365503,-0.2174917040128149,-0.20355728088199565,-0.0383991942517112,-0.9959067676238547,-0.08182427562664295
0.0040858978292292085,-0.21685707946499708,-0.21345268111407947,-0.05663683527633217,-0.9948893407309591,-0.08359107960661327
0.007048724858810713,-0.2172220201301319,-0.20829815209506922,0.11069534547255455,-0.9933528413721284,-0.031570128739533354
0.00040165712883761737,-0.21816633513983097,-0.20024290740377942,0.16800903707940498,-0.9856137612651258,-0.0183977461788872
-0.0039092023800997595,-0.2190884808264607,-0.19156635483353857,0.06258798669785907,-0.9978572751657101,-0.019068359131632864
-0.0010135889316191648,-0.21782200597487097,-0.20459324413615404,0.059226856465426,-0.9976764006566778,-0.03367460535715014
-0.03167486757293385,-0.0352664595439097,-0.1932212616233959,0.03083551696256662,0.9963528913075843,-0.07956184309496894
-0.0375695279791117,-0.035649150840867186,-0.1967416141107692,-0.02077546380875963,0.9941647780819851,-0.10585260565866526
-0.03520754488256115,-0.03490010502823319,-0.1884622090839324,-0.019429454993034917,0.9924666764157016,-0.12096442651889014
-0.039815829790774394,-0.034963454773170255,-0.1884950861571088,-0.017615934245810955,0.9923149788793834,-0.12247718788515731
0.07910878895577213,-0.04588368444284602,-0.2014882116346751,0.29676225972915593,0.9537736400940311,-0.04741312753053285
0.06992569253202272,-0.042840490639315186,-0.1997892294767019,0.3219331526460402,0.9466445624584481,-0.014937121383807834
-0.001800077024806945,-0.046359800294325855,-0.20695481958612413,0.31491678928784234,0.9486633596118692,0.029415063395447947
0.0017924631796118107,-0.046372511588481435,-0.19506964456802645,0.11850489557007222,0.9927493729621766,-0.02013137375171655
0.1035450422946906,-0.060042831034494544,-0.19526427865026552,0.5630622558158891,0.8259911984447578,-0.02644685552793001
